# 3D point list with one line of data per point:
#   POINT3D_ID, X, Y, Z, R, G, B, ERROR, TRACK[] as (IMAGE_ID, POINT2D_IDX)
# Number of points: 419, mean track length: 4.6805700020802998
12882 0.37288067762101135 0.45703634322145892 2.3346454189611334 169 168 166 1.5442255836857035 17 1049 18 922 16 1078
12883 0.34989506958385286 0.45463752005747382 2.2760208830881603 66 61 57 1.6456764769723748 18 1366 20 831 16 1082 17 1570 56 1684
12884 0.68541619323313729 0.47561028617531198 2.4867411296424411 38 39 36 1.6152683978952656 18 932 16 1093 17 1058 2 508
12898 0.49362334557600918 -0.0082932896479303801 2.2929582057298261 140 109 107 0.65897285453792964 17 1551 16 1212 56 1084 2 1303
13714 0.5537698978669785 0.40234523950970902 2.5104413801102221 44 44 42 0.1662621608515315 53 1310 57 1057
12899 0.46843891101664298 0.51600336808324021 2.3868118887655063 48 35 26 1.2200622200649331 17 468 20 642 16 1262 18 602 56 275 56 773
12900 0.59197830248792083 0.11180455987778384 2.4492124358265874 103 87 88 1.3641308171608493 17 1277 18 1112 16 1270
14225 0.73164668668104615 1.5202776989291065 2.1557352704333668 77 77 77 1.1196276099409053 52 1242 51 1077 50 670 48 669
12902 0.47602394868402331 0.1406069656560277 2.2834710405536307 95 100 103 1.7771744691072118 17 802 56 1159 57 1788 16 1290
12903 0.63074180712040351 0.20244392464330929 2.1912549953789351 56 51 47 1.1515487442100583 18 1144 20 1135 16 1314
12904 0.37349086664694103 0.2996718147507858 2.2654683261740605 17 13 11 1.0051029158904796 18 1330 20 771 16 1328 56 1233
12906 0.49489314999467926 0.34884198495628688 2.4593707700146079 171 170 178 0.58599149517775329 17 1017 18 890 16 1353
14239 0.39256139963768816 0.37190326839373217 2.3350552086263803 26 23 23 2.8167342593822688 4 168 51 1410 3 141
12908 0.40526392210862822 0.64751507132681019 2.4760564012749882 56 56 56 1.6377504287896592 20 1163 56 805 16 1386
12911 0.31531151971550242 0.72610094610244591 2.2231002191736939 19 15 14 0.52825932309178225 18 1148 20 1201 16 1453 17 1325
12914 0.4319553809167655 0.78279616243364802 2.4974480344594747 82 81 82 0.4929279253324359 20 1236 56 1476 17 1340
13794 0.59967443870751036 0.41935344849455802 2.4945751479564615 9 10 12 0.049373431346370067 53 2285 57 2034
12915 0.37611988902801824 0.77383346634619554 2.0628209258713746 58 51 49 0.8858696735849001 17 1361 16 1496
14305 1.7498967863788852 3.0205875416555301 11.491609521321889 0 0 0 1.8345390749775496 51 697 52 87
12918 0.48101988327267292 0.51217126670244639 2.4290579692128249 61 59 62 1.491886396476374 16 1525 2 932 57 1430 53 1853
12919 0.40094526779976397 0.82928049907503054 2.4975884083757984 54 54 50 0.69414209794206849 16 1526 2 1616
12920 0.24953225533186268 0.83414986979740957 2.4362349185513006 97 98 93 0.27673755814483986 18 1202 16 1531
13802 0.50138662921293098 0.7685546906614712 2.559197754949099 10 7 2 1.4840413890996249 53 790 57 2149
12923 0.50290912319644421 0.37465514245672304 2.4544503698308069 150 150 152 1.2579291242300346 20 621 16 1561 17 442 18 581
12926 0.40603833520937316 0.86843957122705506 2.4039718460700104 37 35 35 1.2847048494033122 17 1387 16 1588 2 1642
13587 0.48401095112107101 0.58799427696044559 2.4316451340310259 40 39 40 1.0554022504833442 53 1905 16 892 2 960 57 1466
12930 0.4279749301312753 0.45679376702612401 2.1493495743160835 27 21 18 1.8493010765296318 20 31 2 59 17 44
14100 0.49625338073645159 1.1361048678107772 2.2767214254330552 197 148 133 0.34966609311380475 3 1321 4 2335 52 970 51 1045
12935 0.41612655985282682 0.58297740090558825 2.1037428994840943 17 12 8 0.72231175477842957 17 316 16 142 20 454
12936 0.43535079579142938 0.87202722086216244 2.2090266018262099 69 59 57 0.96952550777741775 17 172 56 93 18 65
12938 0.43530654463354113 1.4599899374795886 2.2104443213746579 0 0 0 1.8028332331222643 17 931 21 1614 54 1264
12939 0.27585253839293689 0.6719229832834166 2.2970740461546666 94 86 82 0.60423153532660012 17 1118 56 817
12940 0.66242493007970027 0.26244683293823279 2.4661227749483339 11 10 6 1.0219938968138425 16 748 2 695
12944 0.32879809752533307 0.60123266498189076 2.2245321624730878 50 41 34 0.28745781463970566 21 1140 16 1593
13667 0.49117485096937979 0.21058198134010758 2.3859855320936783 82 82 82 1.1035668647289469 56 326 57 556
12946 0.29285857245970875 0.63940307447291822 2.3006268593624624 97 86 80 2.3538697858877198 16 19 56 23
12947 0.45411371170745402 0.39682515121303774 2.3702486657292097 22 14 9 1.5523030021383952 16 44 56 28 53 29
12952 0.42321359454536489 0.26273918760363751 2.341147799259141 93 84 78 0.8873894081148207 16 90 56 56 53 94 57 114
12954 0.51002315471840765 0.1716684018859069 2.3630518729913752 23 18 14 1.603395184845918 16 103 56 87 2 138
12956 0.31524407732551513 0.71887143156764433 2.3152614774251647 14 9 6 1.8126389044886251 2 35 57 34 16 62 53 42
13619 0.67725131166907504 0.59845773328336871 2.4665664296196215 76 71 67 1.5172163022702254 56 68 57 65 53 63
12962 0.35254691643784525 0.5074859156999868 2.3594935298846971 67 57 55 1.3383800235914827 16 159 57 193 56 140
14295 1.9152814656255892 1.7283469820389348 2.5220893249405654 122 89 44 1.490279824870119 51 1597 50 1287 48 936
12964 0.604072164116643 0.15578911148328062 2.3668247650599454 185 184 180 1.6979970752508176 16 272 56 149
12966 0.41759209792920715 0.82801128374923116 2.5289118148426124 53 52 50 1.0946541061908301 16 180 2 173
14132 0.41256006375084836 0.89215459512964168 2.1815335651227339 191 161 151 2.3775335049843584 4 2438 52 2567
12967 0.41699642660513631 0.27799513256490421 2.2867253007005792 78 70 67 1.8743137992751688 16 245 56 163 2 90
12968 0.67905121380380362 0.47992265058872785 2.5196711279452826 157 157 157 1.4303936301072906 18 227 56 167 57 184 53 192 2 172
13627 0.37321569814289546 0.31631196786534327 2.4233893299408527 23 15 12 0.70267412344161073 53 122 57 121
12970 0.46878134019273998 0.77577046938764305 2.5398522033297595 18 16 17 1.8749882362404353 16 122 56 170 2 125
13786 0.45401601980714734 0.70557681908736147 2.3748177347957302 80 68 77 2.0658946483184879 16 1415 57 1957
12974 0.34917306046420138 0.43455752081107318 2.3629055990237253 105 95 93 1.486100167019738 16 195 56 196
14140 4.7818333555808712 0.55120079225794882 8.8833983667397884 45 49 32 2.5721203941952115 4 2837 52 1431
12975 0.46165625498435803 0.42646631123597795 2.3666398690680137 62 60 56 0.030652884820013708 20 439 56 197
14086 1.2928237787781587 0.73100368919208591 7.6485359900679111 94 93 89 0.33868091159242225 5 390 52 599
12977 0.45121507119850929 0.1639492737344172 2.326814523077815 47 51 53 1.0318274642444933 16 266 56 217 53 305 57 287
12978 0.5200774097281089 0.14158277168528008 2.3540843812743915 210 212 211 0.81938413834942059 56 219 57 292 53 311
12979 0.45379741343967761 -0.090176597243747617 2.2586731245873066 13 14 11 0.32200943731615594 16 235 2 344
12980 0.40748785913275531 0.83368851845371572 2.4981784130352693 35 35 37 0.22432572056545075 16 309 2 269
12982 0.58185217518335686 0.58701208582041386 2.4312080333080055 124 121 116 1.0505455873458989 20 271 56 260 57 787
14094 2.2249112963009847 0.57172766928541008 8.0509714745907583 70 71 66 0.38464864328663628 3 1181 5 244 52 799
12985 0.59974669358409383 0.58025428926384648 2.4670593946760544 67 62 59 1.7781760205591306 16 437 56 282 2 466 57 363
12986 0.35908568603808011 0.62563115067813535 2.3524494336737751 83 76 70 1.5330737871867484 17 1099 20 658 56 287 18 1048
12989 0.41562574427232357 0.29329855345800021 2.3213172730932654 95 85 83 1.9167170027466107 20 766 2 240 17 660 18 1289 18 564
14375 0.40916384998136085 1.6502620843733196 2.1858952339522437 17 11 20 0.17595631088239017 50 699 48 767 46 721
14166 3.5375343683450522 2.3730781572923045 8.1890135310275358 60 66 62 2.6085652577503673 52 192 51 139
12993 0.61181819709656127 0.042634311347654753 2.3510048039158247 89 64 68 1.0795073916763509 56 355 2 677
12994 0.40286333216308035 0.27695483174640884 2.3335568660506452 50 40 38 1.1263908515928687 16 674 56 378 2 696 57 712
12995 0.3884943595305777 0.28545243523776764 2.3450288856915815 100 89 87 1.2250121515523789 16 675 56 379 2 699
12996 0.33469429601455442 0.73553202162879761 2.3255220491653139 80 71 66 0.81651210412571862 20 1199 56 398 17 994
12997 0.47975960245923305 0.75404638301927773 2.5132694421670614 14 12 13 2.134766546145165 16 539 18 1150 20 673 56 401 17 1428 2 1006
12998 0.49325146098629363 0.59754930824842079 2.4274755792838936 72 70 73 0.10759500596424462 16 441 2 470
14164 1.8602171694936369 1.806369012488908 2.4862560902757913 129 90 39 0.60301735412944601 4 2704 51 119 50 83 3 1365 48 65
12999 0.57496208858077336 0.049798637419253257 2.3910435709892597 10 3 1 1.712941692112842 16 387 56 454 2 421 57 2351
13358 0.43420297985300221 0.77111456664978384 2.4978213373739835 52 50 51 0.31153949577850126 16 1472 2 1558
13000 0.460682744528573 0.74171947540566174 2.4827211925065935 10 9 7 1.8339050693339944 16 210 56 464 2 568
13004 0.40963454773500441 0.84799598978145263 2.3196221192151554 47 38 33 1.0746942860807862 16 312 56 512 2 320 57 2317 53 995
14172 1.0476385160693982 2.1590416222430928 6.7760636238590193 24 25 27 2.0193798137830545 52 585 51 209
13007 0.41268321938681657 0.80974232228071141 2.4735260368312595 105 107 105 0.78581039423355659 16 334 17 1362 2 590
14391 0.30101878203272259 0.74742482344361316 2.3793918860817596 20 20 21 0.68156368961123015 50 307 48 1015
14246 2.0939394938826923 1.8273665485878638 2.7382870204438321 138 105 72 2.2801969316163189 4 2683 51 1557
13009 0.46552182777739815 0.75903258526088657 2.5052864152562382 131 131 129 1.5616027412471865 16 1454 56 532 2 1009 57 1190
13731 0.29768437197814696 0.73052575523527108 2.3214309153342012 14 8 8 0.81076179582664287 56 1440 57 1177
13010 0.36157120250943581 0.67768230665030071 2.3245276859367459 38 32 29 1.8640344386716232 20 662 56 544
14244 0.4294901533989518 0.51979432116010194 2.2216639567474328 31 32 27 0.82944567722022267 51 1509 52 659 52 1116
13015 0.59208250370080884 0.54516591061308028 2.4183010999823904 57 53 54 1.4589108757437661 16 885 56 573 2 944
13018 0.34753294683505692 0.46136083925209986 2.360454299534942 168 166 169 0.94393046851091778 17 1052 56 590
13019 0.44751028568418327 0.44071292136291335 2.15235683254383 55 48 42 1.7607094456458181 17 847 18 743 56 593
13022 0.69753445476069009 0.3713038121723134 2.52829454020624 81 61 47 1.5181290169969079 18 902 57 2335 56 619
14252 0.28331933538135728 0.66708027983425344 2.3364052216384441 25 22 21 1.8674701796453212 4 1152 51 573
13024 0.47510214262676792 0.26311043958984043 2.2026449210094992 86 85 81 0.071321760300421783 16 793 56 649
13683 0.48720580396539165 0.3552991367404893 2.4284191465042562 191 190 188 0.68496763974725006 53 1299 56 338 57 741
13026 0.56387092607868339 0.077769699688660307 2.3333003003678643 76 39 28 1.2227327821535927 16 657 56 667 2 681 53 939
13027 0.60364107715349014 0.083415022436108807 2.4268781074136228 44 39 35 1.0234958636910823 16 798 2 416
13029 0.35264741104464969 0.37661415697564032 2.3086880340157729 79 65 64 1.3040923045196537 56 710 57 2013 53 1717
13030 0.49633953598159769 0.41472497607199565 2.1263967310138163 53 46 43 0.032494060775351316 16 495 56 720
13031 0.64788774351626288 0.45604012321448717 2.4920264553278582 101 100 97 1.015068179399863 56 731 57 1067 53 1319
13032 0.45953898193797821 0.43926001731406827 2.3592837694168627 71 27 35 0.37021064728273839 16 858 56 738 2 1162
14206 4.4550772571846204 2.1706169115699203 9.0037465129089949 29 28 23 0.47494671522275089 52 833 51 689
13033 0.66255493270436894 0.46437109999951076 2.5174504455898155 130 124 126 0.79781243220574094 16 861 56 739 2 1273
13691 0.78998312175981789 0.61184132756481358 2.3583688565440992 82 79 74 0.12079920418819291 53 1371 57 776
13034 0.46359226341291648 0.44573926800146635 2.3648091522237502 48 15 20 1.3946527069236854 16 859 56 743 57 1346
13035 0.45105707987316024 0.44916705721739336 2.3561602893924243 22 18 17 0.26861572245488224 16 1073 56 745 2 911
13036 0.48255409477683542 0.45977804371085401 2.36062971575114 18 22 19 1.4122295559968547 16 499 56 751 2 916
14204 2.9521736283668583 1.2364329894390358 8.3952122690546762 134 105 75 0.7634828964001853 52 332 51 669 4 787
13040 0.49408126876875358 0.5519674839394515 2.4287713842381131 29 30 29 0.41519417667239106 16 1363 2 948
14150 0.57720824709397778 1.173758121717613 2.2063113000058605 52 58 58 0.94729261885239258 4 43 52 23 51 14
13041 0.60269014241030838 0.58514983479104643 2.4082125734796702 106 105 105 0.22507847666119418 16 1375 2 1348
13045 0.30227827703228266 0.68824977046853897 2.3038363041414804 72 65 59 1.1941536422038137 16 913 2 565 17 487
13046 0.28859698384676902 0.68583908198937915 2.295191957298659 57 49 45 1.4140193368759313 17 1563 56 823 18 775
13048 0.46667058584824733 0.77170187826694747 2.5261713646071251 125 125 125 1.8565837418934941 16 546 56 839 2 1018
13643 0.49696671395955572 0.062586189085947666 2.2486192561725917 127 97 97 2.1394737026354833 56 145 57 302 2 196
13050 0.47134865048350622 0.9217381867058605 2.4114226879051901 78 73 78 1.418682349523632 17 1419 56 884
13053 0.90932116227279314 1.5629624024924671 2.1111883595629752 65 64 60 0.56101222276676477 18 808 56 895
14156 1.285184722922841 0.76946729669094827 7.7301664284264939 94 93 88 1.0692993479209676 52 111 51 70
13055 0.61375833169225025 0.55536034046584903 2.4752216422559643 69 68 64 1.5088989260641241 16 1469 56 919 2 1225 57 1439
13062 0.48619560393644895 -0.0045118788571847559 2.2920966661789475 168 139 137 0.13052456911597168 16 769 56 955 2 1304
13063 0.513522741233991 -0.0030307801273713334 2.2709523171458286 120 89 87 1.5789429013586893 16 772 56 957 2 826
13064 0.52231314330294909 0.028867436826426094 2.3154260118515571 135 89 84 1.3649739003201171 16 1236 56 965 2 839
13070 0.61672202668604981 -0.16714485241264829 2.3642928996573458 27 26 25 1.2122987951805195 16 753 56 1047
13442 0.44614777322225552 0.49575859909553688 2.3561560733307751 131 128 129 0.32771127621216983 2 457 53 283 57 357
13076 0.50501818949994859 0.0028547383858208816 2.2903174150904126 153 127 128 0.38322104245447863 16 1219 56 1094 2 825
13953 0.41280376071305408 1.7358882633811605 2.0780522573816591 20 19 21 0.24659461988851306 43 107 44 127
13078 0.57535595790214 0.056050517260529231 2.3387561756063118 111 83 80 0.53766351947048285 16 784 56 1118
13079 0.53265715644352229 0.071407742016541167 2.2185777665757049 68 50 43 0.99207267395886167 56 1128 18 689
13080 0.54467743318246797 0.08362229297695431 2.2805234003747321 231 177 156 1.9775521056123477 16 658 56 1132 2 866
13082 0.6333558067084164 0.13163841207150123 2.360653485686544 93 84 82 0.93081575208495115 16 1291 18 1352 56 1154
13085 0.44351351939466993 0.22455314649663835 2.3322970587213887 111 108 105 1.8355546997663021 17 1544 53 1582 56 1200
13961 0.65381574572683876 -0.17962899890121847 2.2580327346844347 21 21 23 0.40108701451244844 43 626 44 271
13086 0.38159091382487492 0.22590837010442708 2.2716745861480288 8 3 2 1.5317705277661728 16 745 56 1204 2 459
13088 0.38426197701479892 0.25793797278780417 2.3027396909756872 30 26 23 0.25310672078858548 56 1212 2 1404
13090 0.4779100867671785 0.60571594297072662 2.3764594470099634 105 79 66 2.2561880534786649 17 1089 56 1281 57 1470 53 1910
13094 0.58970234674123567 0.051054027062058124 2.3897350102166302 139 104 106 1.7346886873167635 17 1583 20 1337 56 1315 2 1326
13096 0.4776444885183026 0.35840621226024955 2.3918084242222943 60 55 51 1.2405463265918688 18 1372 20 804 56 1366 2 1678
13098 0.37108247302987241 0.34363508298408119 2.3323987342546602 38 29 24 1.3298562949761124 16 1398 56 1403 2 1720 57 1974 53 1675
13102 0.46548246173278196 0.76058960117629104 2.5113394979681147 34 34 32 1.8148152455038582 16 1457 56 1445 2 1542
13103 0.44975688447082235 0.76265090524620371 2.495411414087886 53 51 52 0.91526336773496464 16 1464 56 1454
13105 0.43292907847141127 0.77506250837532675 2.4762592420056837 59 58 53 1.8039279029235584 16 1478 56 1469 2 1566 57 2151 53 2157
13474 0.47024975872821712 0.61675222715592637 2.3396955762898606 28 26 27 0.54013084995644645 56 1298 53 744
13107 0.45519975604029644 0.79707141989607755 2.4461801737205446 27 27 24 0.91484450071770007 18 289 56 1482 17 504
13991 0.64745473436061196 0.10390651916286406 2.2478356061893683 110 102 99 1.7057036541859167 44 647 34 418 27 831
13783 0.60104141986305215 0.3152924956279749 2.3895696304852647 41 40 35 0.55154305874074883 53 1608 56 1019 57 1890
13109 0.65813101563025123 0.53634255097874295 2.4737720528210647 87 84 79 1.7503592146219038 16 1304 56 1491 53 1845 2 939
13985 -0.93054064008849668 1.831145358078909 3.9817030150296162 0 0 0 3.1896919854614021 34 1989 61 2346
13776 0.61501257748463767 0.73777897613504839 2.3422701186262294 75 72 68 0.7876620060796391 53 1957 57 1813
13110 0.43035119637131991 0.80013061119018358 2.5064324966409672 121 119 120 1.7420783470190206 16 997 56 1495 2 1587
13111 0.4324839937564689 0.80695909079045625 2.511518433212037 127 127 127 0.86418996294288009 18 1175 2 1593 53 2256
13112 0.42414415510047559 0.80299990855078529 2.4867843338688087 42 42 42 1.7496045817760377 16 1502 56 1501 2 1084
13115 0.39929379997275533 0.82650960858568601 2.5019513659227246 78 78 80 0.38508063049104813 16 1523 2 1610
13999 -0.45922288051300314 1.6861797687930695 1.1643260609914285 51 55 58 0.26515462460383166 43 864 44 744
13116 0.42960028966139713 0.83114978503973747 2.510769660283624 25 25 27 0.97080530920058961 17 1369 18 1195 56 1534
13791 0.46896920636116374 0.34931119961836388 2.4987123742725168 28 29 31 0.13877266007122493 53 2342 57 1991
13117 0.40282257107669783 0.83544772974707582 2.4921977429339806 28 28 30 0.24232306694398378 16 1527 2 1043
13130 0.42935714487831378 1.1670161225208462 2.2940541214951358 37 25 25 0.041845591757266619 20 863 56 1619
13132 0.48968845914144693 0.51099108398707005 2.374711064005973 147 121 93 0.27741030363834962 16 879 2 935
14017 0.51482347089573122 0.82850275725091171 2.051296189526532 33 2 1 1.4401968227851878 43 787 44 977
13142 0.46269782575489393 0.44872226823694272 2.3644877674100528 70 65 62 1.1377357691747154 16 691 56 1708 2 1164
13144 0.67376790647932117 0.43479499337943711 2.5240716083300683 91 74 79 1.2741410675362459 56 1743 57 905 53 1314 16 1046
13153 0.50825461134447047 0.051609902046801576 2.2708098350076327 124 93 91 0.84104609108914308 56 78 2 99
13458 0.36393627808409224 0.60520953479442874 2.3533927494455069 58 53 50 0.81592391341457238 2 472 53 526
13975 0.48549562515216499 1.5437353408541055 2.1766165173267042 4 3 8 0.26827794898567747 43 440 44 540
13159 0.64014685737052357 0.7952403211807888 2.344321671626445 0 0 0 0.59442026770304524 20 1249 21 1227
13161 0.37624238013141459 0.48319787187837565 2.3564655026090202 152 150 145 0.88167659340766003 16 1102 56 582 2 517
13466 0.40555849457336141 0.53233791837455524 2.3572839636794547 15 10 6 1.7575963244079924 56 778 53 642 57 779
13163 0.29866819703433328 0.68158277830581437 2.3032524458485995 60 51 48 2.1432915249565014 16 534 56 820 2 561
13164 0.47501035301377675 0.90078097521686351 2.4028856726400454 78 79 77 1.864149821126786 17 1404 56 880
13166 0.52670165294162619 0.12563094765157731 2.3469076788638255 31 30 26 0.74880421455156088 16 1151 56 988 2 857
13169 0.44478175800504677 0.96969591774408503 2.1390633870172215 209 181 169 0.68140061207090485 17 1424 2 1092
13538 0.48670258806386629 0.14208089399632617 2.3340239895729762 62 62 66 0.63468351810536572 56 1158 53 1538 57 1794
13171 0.46278325621663502 1.2787875548071392 2.16636084969474 67 49 39 1.0819038864737522 17 1556 56 1678
14055 1.8755774898493434 1.8248771868958298 2.7863548270333713 48 50 49 1.0233199108393842 3 297 4 407
13172 0.39725032739304622 -0.00033149502187450883 2.2763871279027175 197 173 171 2.7041597491864597 16 646 56 1778
13176 0.37821174410278868 0.54543970244357765 1.9572011551766226 94 93 89 0.31126157985034547 16 2 2 3
13179 0.57642083092103424 -0.11113371919126266 2.3955335079717863 26 26 26 0.18330138350430658 21 59 2 16
14063 1.588456386961415 1.8783892337875483 3.4332118881743958 93 99 95 0.9868905333719683 3 3687 52 248 5 379
13180 0.54423900598180375 0.46473269983560234 2.4160632851079664 0 0 0 0.019070628974036712 21 46 56 33
13183 0.58794875570249494 0.11568844374913308 2.3367087390019012 0 0 0 2.0635531049261546 5 33 56 32
13185 0.74835557118573059 0.67815961876099584 2.4000787325430437 95 62 29 0.11828612630895494 16 35 2 43
13331 0.38386168515458546 0.2204087817930277 2.2776395860383616 75 71 68 0.37923839595086645 16 1310 2 1255
13186 0.58003803158237832 0.70924799746524447 2.489591518460065 19 13 13 2.5723406412411487 16 121 2 44
13190 0.46502453197833216 -0.018718985267716325 2.3072735919713043 201 178 175 0.31603501975774828 56 52 2 64
13193 0.50962654655496309 0.44279067853164461 2.4913651038742022 148 123 32 0.28430918074389849 2 76 53 59 57 60
13339 0.61041394995974207 -0.087554711689583412 2.4311121761476895 88 89 84 0.99477978383996035 17 1213 2 1290 18 1063
13198 0.45275587155523273 0.7814693879029071 2.5276010448629536 123 123 121 0.66320493786399182 17 182 18 147 20 139 2 103
13926 0.37106399403443929 0.36275479356086548 2.2968090038786575 38 34 36 1.1419492366448125 9 1289 11 830 28 624 61 788 59 886 8 500 36 317 60 512 25 295
13201 0.48906252330218941 0.35533821618201228 2.4053965886406532 52 52 54 1.6810549061361999 56 79 2 122
13203 0.39082915760774134 0.22730063432706105 2.2325907553856643 6 5 0 0.41500237507579874 16 108 2 141
13205 0.64159582388695247 0.56402352248654397 2.4675502723318208 29 28 24 1.6043361154530431 20 151 2 147 18 159 17 193
13924 0.77332365466697583 1.575181382494548 2.1309798883262281 41 41 40 1.9562754602006758 61 358 36 475 25 424 23 218 35 369 22 633
13207 0.44635846010196212 -0.067028493821326474 2.285158046751727 12 8 7 0.95727693678459613 56 51 2 157
13934 0.42298161038213317 1.4539026467153278 2.2529889342498666 34 27 17 2.1210638366131631 36 715 60 662 25 1932 25 418 58 287 47 1845 55 755 23 216 35 443 40 566 37 543 39 188 39 639 22 429 22 268 38 607 21 350 54 342 17 165 18 135 20 128 55 258 41 286 4 879
13209 0.58150986612067956 0.57692548726240478 2.4257520843221085 38 39 33 1.8817139542520844 56 259 2 203
13210 0.60109288030717323 0.088110110515787862 2.3388932478932318 199 147 133 0.24339437439102932 56 318 57 297
13213 0.66485899877678523 0.38729286770215227 2.5385200840014317 183 179 180 0.67939967242090338 56 615 2 279
13214 0.47519272470902907 0.55340002708158831 2.39280845016361 162 158 157 1.2043155886936754 16 436 53 737 57 784
13932 -0.7987182864053467 1.7204594638944894 1.7004179303207863 49 52 49 2.2336121536556446 36 88 23 50 58 44 35 56 47 26
13215 0.58654910052195408 0.59412382908137817 2.4207149261929151 84 80 78 1.5387794519156441 16 440 2 299 57 1118 53 1895
13218 0.53563153197110458 0.44513284475809928 2.5001646858271713 6 4 7 3.096074570940015 56 268 2 333
13219 0.58575938251091164 0.14631425021006858 2.3713926717749447 96 28 47 1.9816825529502111 16 262 2 353 56 220
13221 0.42336540869572958 0.82656508456665545 2.5380414800540252 51 51 51 1.7001054075778472 16 1518 2 386
13222 0.45260282555471604 0.30961642104847859 2.1662667261867119 56 51 48 1.8299763266403635 56 1796 2 395
13224 0.36343043554794535 0.37483926248289706 2.2815693586699992 154 152 137 0.66732198787266839 2 405 53 691 57 528
13227 0.50726765684946384 0.43254084159248968 2.4842431887139362 50 38 28 0.82421645707137436 56 600 53 1322 57 1070
13234 0.55771559238630641 0.56779934288730927 2.425749343885883 50 52 48 1.8119320954684859 56 423 2 465 57 611
13236 0.47705101336469469 0.434448316380532 2.3575409616735183 63 13 22 1.5026075583746894 56 733 2 494
13239 0.48717920822569805 0.46193224755431994 2.4410427171486888 126 132 130 0.68296989722771217 56 748 53 1337 57 1375
13838 0.63655372874187777 -0.2061431290625208 2.3002878018024377 97 98 97 1.3709203478580403 2 1281 56 1041 57 912
13323 0.39921788899494887 0.47663074145567463 2.3657595842889863 115 112 107 1.2895887858145643 16 1098 57 771
13243 0.58633013143279467 0.54270673942277192 2.4708178551367022 130 127 122 1.9114795193415821 16 432 2 534 57 778
13246 0.41911810632093838 0.66863310218363792 2.4894181228662284 9 9 5 0.81342446231285981 2 556 53 769 57 1158
13249 0.37201644236072151 0.78422470731720118 2.4242173549918942 106 110 113 2.881927172570653 56 528 2 584
13254 0.49437428052093391 1.1862972498557438 2.3061630727393823 40 19 18 0.20827669370575191 56 891 2 630
13255 4.1360307471174167 -2.5605246170297931 -0.43282785229208343 57 57 57 2.0386301940116853 16 621 2 654
13257 0.49367545918480121 0.012659003454701431 2.3131076950242413 222 175 152 0.16485334207717381 56 515 2 674
13258 5.9233820869808715 -1.3713168476263995 -0.74421636474890906 38 38 38 0.64942279046302809 18 1075 2 683
13259 0.51670515417882323 0.14555370629771763 2.3462902623879156 204 204 202 0.49994751463108211 17 1287 20 1109 2 685
13261 0.54368485660945387 0.15594765993471385 2.3566138371125991 213 205 202 0.86432487234454547 56 367 2 688
13262 0.39268881860397237 0.29065572958395314 2.3353750436300111 58 49 44 0.79624700379184177 56 643 2 701 57 616
13613 0.56600857343914246 0.065182207351403093 2.4471559307206703 184 167 167 0.23967172528110953 53 51 57 51
13265 0.68687069034853898 0.361525848873823 2.5355225586280494 177 179 175 1.0001062426926639 56 679 2 736 53 1289 57 1030
13270 0.42479255639350522 0.2709948185763168 2.3328619987321235 68 61 55 1.1203302109400546 56 647 57 1002 53 1251
13274 0.49046839669804604 0.43995201967758141 2.4434408094706401 49 40 41 2.9628575104882717 56 735 2 785
13276 8.0540284475140105 -3.365239713001956 -0.61139833127845733 48 54 52 1.1074934518352393 16 720 2 794
13996 -0.68113639541261395 1.7092934280910863 1.5476063404717302 120 89 42 0.11639562111102505 43 1085 44 730
13629 0.66250885819693128 0.39345333109795921 2.5155799043779092 170 164 166 0.6390231715260839 53 124 56 155 57 133
13279 0.47317929504603684 -0.076399713517675397 2.2511780467223628 148 124 122 1.8721780728450614 16 641 2 811
13942 0.45090238222438461 1.519391243415404 2.1471558010681209 14 15 17 0.55997276917501793 43 7 44 9
13281 0.48905244008456045 0.029798534075049305 2.2286189997825625 68 50 46 1.9039260692848863 56 1311 2 815 57 1738
13427 0.52471502687991434 0.33792095699685787 2.4905014730030182 49 45 46 0.62658369142543469 56 154 53 123 57 120
13282 0.60432971925174317 0.052450140299712643 2.4106439788813532 127 124 125 2.3347956647953225 56 970 2 816
13283 0.52824115507769298 0.43347875846305856 2.5051408309271288 30 20 19 0.40105506889657772 2 824 57 761 53 712
13285 0.57608347405742699 0.06495409385056676 2.3933240221824863 78 50 51 0.68633381326237386 18 1096 2 850 17 1251
13293 0.37379935571581518 0.46571112484761901 2.3580573455312752 150 149 147 1.6379831167700016 18 930 2 920 57 2384
13294 0.49425576647233727 0.48977231913516989 2.4387453018375616 69 69 69 0.59632166046795132 16 873 2 924
13299 0.62814289092915998 0.579897402699177 2.3478548248535489 85 83 84 0.43898384706878624 57 1109 53 1373
13300 0.49391488804136741 0.54036386412642334 2.3379916571064241 123 127 126 1.7204537080485147 16 1359 2 949
13892 0.37501424011389056 0.28203307719971471 2.2995336224797867 0 0 0 2.029439902155731 5 1590 36 2141 3 1935
13303 0.45247780007009231 0.76213422554727517 2.5078861483538226 59 58 62 1.0348171840843299 16 1460 2 1010
13305 0.43632774590298523 0.81822938390677724 2.5292459397993459 59 59 57 0.97078121640580406 16 1512 56 1515 57 2368
13307 0.85588261428069312 0.96237134559950255 2.3354005332638397 0 0 0 0.75945342479095179 16 1554 17 1422
13314 0.65336230058258471 0.39264764288674836 2.5088613825935897 43 39 40 0.6616116241965625 56 1824 2 1119 53 1708
13320 0.36427062536272609 0.4594223058600429 2.3498881397930287 71 69 65 1.590159247048015 56 917 2 1174 16 1081
14264 2.0474448588682455 2.1725898228387308 7.2273226792248089 55 63 59 0.39709578867651552 51 821 50 163
13321 0.3572019348468074 0.45541506942244642 2.2928603845123336 0 0 0 1.5812199032085827 16 1224 18 929 20 834 56 480 17 845
13322 0.39442806926864665 0.47203268418091737 2.3722859154078804 41 37 31 2.1183689399638603 56 1675 2 1184 57 1398
13335 0.60244224696032045 -0.17270253663595303 2.3620171955375215 80 82 79 1.2502175481230857 16 639 2 1282
14220 0.60765018756043898 0.60300305897315265 2.044760681093039 33 18 4 0.90815440125329872 52 1314 50 1073
13341 0.47359819271527337 -0.034437574305363532 2.2476891884444079 193 161 162 0.63148924853967547 56 1077 2 1300
13347 0.60695531597956209 0.16841171675438435 2.3960206108560098 88 93 86 0.014664040655185621 21 1489 2 1388
13350 0.37175557133733322 0.26033954357758965 2.3041243656119468 89 88 83 0.99620208149230327 56 1213 2 1405 57 1882
13352 0.53222531321158706 0.35693823550947879 2.4958460843854322 76 74 74 1.7275755273511044 56 1410 2 1474 53 1690 57 1982
13353 0.49601900629613405 0.71016299330318988 2.3585945737270939 76 72 71 0.41229356443503185 18 1125 2 1491
13355 0.43140966740730208 0.62035237993900183 2.0687752611417558 99 82 64 0.17183722464337042 16 905 2 1504
13356 0.48701188958797509 0.73358675690950592 2.3650595921077553 82 80 81 0.33774598740191547 56 1394 2 1518
13362 0.45157446352564617 0.90335264615638211 2.4987551893391275 7 11 12 0.22639155448121084 17 1407 2 1660
13368 0.45091454702589762 1.1180651446479846 2.27130258912592 55 34 29 0.62228714219854542 17 992 2 1692 20 861
13381 0.61723926411018393 0.57363400470046388 2.475576182724962 83 82 78 1.2399946547428446 56 1301 2 1755 53 1886 57 1113
13383 0.47778363245710709 0.3448662343558373 2.4375358558415012 137 136 135 1.3575859745208116 17 667 18 574 20 424 16 263 2 276 40 471 37 653 22 380 38 511 21 428 55 549 54 382 56 336
13384 0.40161501912753056 0.94183118994444182 2.2420760017940795 225 208 192 1.3452957583764065 56 10 2 8
13387 0.5127118202219525 0.16955811648619384 2.4489809472019641 59 38 43 1.047151575566907 56 54 2 55
14332 -0.82892338421042466 1.7341731955334181 1.8117198626405895 54 55 49 0.14357475798211666 24 945 49 359
13389 0.60138984009262975 1.0738519966319675 2.097769794239317 0 0 0 3.2743738358578822 20 363 21 616
13394 0.52362320777009264 0.42365819775961128 2.5058630158001884 112 105 101 1.0014805156479463 53 1320 57 1340 2 856
13399 0.51761761172541276 0.43997897084132254 2.4995391282074433 61 35 0 1.6623614512298941 56 1826 2 1146 53 1325 57 1076
14280 2.5169004583827701 2.175248610932043 7.3877882357442193 65 61 52 1.7482863371893169 51 1198 50 407
13405 5.4917687360492753 -1.9293435476100067 -0.47778309831072235 53 53 53 1.8058137017124949 20 1058 2 1286
13413 0.57029930326223288 0.60113144774413996 2.4643968601071911 113 106 103 1.1171957385369573 2 49 53 27 57 22
13424 0.33728172899151809 0.52055270202157988 2.3220777009158895 72 65 59 1.730943961656191 2 83 57 107 53 85
13425 0.34732296183554262 0.46978549595135571 2.2774576523096872 154 160 160 1.1445435468816776 53 89 57 111 56 105
13426 0.60418565359214305 0.16625236459332102 2.3811804515692567 66 60 58 0.57290319251826538 56 1172 53 114 57 161
13433 0.60541062429914627 0.50055436996702196 2.4682606989460587 114 113 109 0.41575848304311319 56 179 53 195 57 185
13439 0.30145135917849925 0.66141945399159918 2.3102493976077598 40 32 29 1.9488635474940297 2 253 53 264 57 278
14097 0.43832709719789975 -0.87043161904456079 2.0875207672044001 131 99 62 1.6610771304735685 3 1800 52 830
13440 0.4916882889645337 0.60449857758938985 2.4396591685726574 96 96 98 2.4933169649119069 2 248 53 271 57 366
13441 0.62663710647621262 0.51578874241693773 2.3131004797713106 0 0 0 0.0097894772761297974 2 190 5 336
14101 1.8482156317292464 1.7903645948352751 2.4005780887697123 68 67 72 0.87947606956896773 4 2706 52 974
13444 0.48301574264360442 0.3628654751692319 2.4191913339278042 41 42 37 0.33669210196342814 56 200 53 296 57 270
13447 0.48051137717785125 0.16420271302292394 2.3491643424740416 54 53 58 0.65758787232909766 56 369 53 350 57 496
13449 5.0165441291989161 1.5933404525985198 -0.5563143161702615 13 19 17 0.86759778122574738 18 803 53 360
13450 0.53005011585407269 0.46126215391415337 2.5019611267426058 31 24 22 0.38198250795685951 53 395 57 353 2 498
13467 0.67105290696494635 0.37186590820201892 2.5307625761488772 99 97 94 0.4719116511976334 56 1381 53 646 57 737
13469 0.61201468161682093 0.36931146090465627 2.5109442115893379 6 10 9 1.4270708764621347 2 739 53 688 57 743
13470 0.47117223785221529 0.4186802076006384 2.3620563238840302 17 15 17 0.44770680850124617 56 719 53 702 57 753
13471 0.47399114204705484 0.47765255651709421 2.4421922471857807 151 150 146 0.74556470617315729 2 509 53 723 57 596
14129 0.53060994992290056 0.4861582901973292 2.0778533516137254 119 115 110 0.26820702205461988 3 3319 52 2394 4 2924
13472 0.67522435157861205 0.53845666800753511 2.4756000129381444 56 55 51 1.1370800160750745 56 575 53 729 57 515
14133 0.34778664381593383 0.41723577730247141 2.3221521582715043 58 60 59 1.1240520812961685 4 2572 52 2683 51 1447
13476 0.48718510299674023 0.62735653215474296 2.4165147560509279 125 90 62 0.47325259901315148 56 410 53 757 57 1848
13479 0.45139165166452527 0.76342197052406169 2.4800630307545686 103 102 107 0.96750645972655092 2 1012 53 782 57 829
13480 0.282294328268415 0.7950797001329869 2.2707974047094894 54 55 51 1.302514560430845 2 314 57 1200 53 786
13487 0.50060354511525262 0.18464156779390078 2.3706482274383816 20 18 19 1.0449017551743627 56 487 53 897 57 641
14081 0.68760006193144219 1.1354494443675016 2.2367364121611004 185 136 119 0.6995938880205258 3 920 52 520 51 223
13488 5.9660906234755382 0.45787196543072728 -0.9088065648607927 35 36 31 0.56586122302097908 18 982 53 923 57 661
14085 3.7030129604799189 2.2378536968930205 8.4072968563253099 59 50 38 0.2500746318033758 3 3615 52 590
13492 0.62440157679478547 -0.21384221851628327 2.2769445781131692 98 97 93 0.73277230957954975 56 1774 53 979
13498 0.68769520485458469 0.472716757295709 2.5259481090698768 180 174 177 0.82711463196541979 2 1767 53 1152 57 764
13499 0.49831784297831883 0.46449292295177613 2.4863314003534045 61 49 22 0.31919831879432264 56 749 53 1153 57 1087
13501 0.42779751784854048 1.0443069895377417 2.1628576368780226 61 47 34 0.76832313367368898 2 1071 53 1162
13502 5.9845870062371871 -0.62622411568473269 -0.83629113830095858 41 42 37 0.69918662115779784 18 1278 53 1172 57 976
14165 1.8950423468272386 1.8155275932514772 2.6832377880294156 134 99 41 0.46449302536587289 52 163 51 122 50 77 48 44
13508 0.51241394167815701 0.15917413820993265 2.3566717098506822 45 49 50 0.55217340046565389 56 1169 53 1218 57 1803
13510 0.43292305550588883 0.28866716127213288 2.2802752511930215 46 36 34 0.74365253074571813 18 1301 53 1253 20 767
13516 0.6850089532969752 0.53292385879320359 2.4765492338279227 59 60 55 1.1891272010900267 56 770 53 1362 57 1099
13517 0.48206614367559786 0.51643612335783051 2.3665860718303411 54 40 25 1.9248883622968935 56 429 53 1368
14245 1.1643518719445871 1.8060254389887889 6.4229376071488424 64 58 42 3.0192391027569858 52 2013 51 1512
13524 0.49677323631766324 0.5870166575345509 2.4207950118005814 137 137 137 0.82990474163738182 56 1507 53 1392 57 1121
13526 5.9916005288798928 -0.67273002923634928 -0.92995143712977713 43 45 39 1.1632859498787451 2 900 57 654
13531 0.70821054394334815 -0.052448504979048578 2.3841895077656949 16 2 0 1.7193046259127225 2 667 53 1472 57 1710
14197 0.44569300972298592 0.31927061568324799 2.220209891260541 30 25 21 0.282825750684917 52 883 51 535 50 565
13540 0.48627735702271457 0.16584541813083425 2.3528445004020639 202 199 204 0.5794228673391193 56 1176 53 1558 57 1824
13543 0.49178230800967132 0.34351210982362956 2.4671391708181778 41 39 40 0.91842728142801267 56 1261 53 1678 57 1971
14201 0.49751268075470895 0.45472515859469026 2.0592439984437956 200 194 196 0.44938236224359623 52 920 51 569
13544 0.52382724280726523 0.36137920559382053 2.5022234626280344 55 51 48 0.20436239461664507 2 1718 53 1703
13549 0.44432092076340957 0.48864348702252586 2.3528674634265649 36 32 31 0.83731474028253372 2 929 53 1823 57 1400
14145 4.979855954020441 1.7881412163614976 8.9082843617304004 17 21 22 2.5329954842196232 4 74 52 53
13552 0.47225736055762524 0.56680703303200386 2.3462329981681513 22 24 23 2.0211063190663983 2 1229 53 1885 57 1449
13553 0.49584712467935704 0.5842120075833398 2.4301755863746237 135 135 137 0.44362313171455453 56 786 53 1902
13567 0.25983262028812631 0.70522527462153739 2.2878771392443977 41 36 33 1.0698647023073231 2 1505 53 2088 57 2076
13568 0.45734092551609673 0.74787075843912698 2.4650702871694254 13 14 8 0.85589609723462201 2 1534 53 2129 57 2118
13582 0.47972155746246459 0.44761188079184139 2.4875485034497866 42 44 43 0.41694119340423513 2 1155 53 2347 57 1372
14477 0.44380631893712946 1.7457342382182959 2.1476030767365053 20 17 21 1.9277010817588462 48 771 46 776
13586 0.4758006902972039 0.6166458716717742 2.3785918489652285 213 181 136 1.9420217172363479 16 1381 53 2362 16 900 57 1478 56 799
13956 0.5064745748466587 1.6984655061514025 2.0804833231412259 20 23 25 0.032496100899511306 43 181 44 150
13589 0.36533360843256685 0.52582113147116083 2.2250750938783921 62 54 51 0.6918550333122413 56 108 53 241 57 256
13960 -1.5583855992967428 1.1894096431182868 4.9066076999115911 92 63 38 0.36549062485870287 43 1339 44 261
13593 0.68260395825246289 0.94868454733203711 2.3891701194341803 72 66 76 0.36639512435625654 2 1067 53 808
13964 0.77343823199377415 1.7043635126577232 2.1108500544484321 22 18 22 1.059599061718131 43 108 44 295
13597 0.6321382790331822 -0.20389838246406444 2.2944661112914764 32 34 33 0.33836315934716399 56 1042 53 1449
14429 5.9925652596650139 -0.049944458037443268 -0.85082002875716434 0 0 0 0.88291406661929117 53 920 17 1063 18 749 20 637 21 533 57 576 2 513
13602 0.73526431599493935 1.1924055266074125 2.0790625375070064 0 0 0 1.8127230030563015 2 1694 18 1245 20 1311 17 1453
14509 0.75791718428880372 0.66121692410887811 1.9983269577595186 44 48 48 1.4465168751671025 49 786 45 738
13618 0.51240878518347399 0.5384828905076644 2.4900608983431987 41 42 37 0.65159370314652887 53 45 57 64
14507 -0.62277244972022094 1.8403002226345755 1.2690520251016117 119 89 35 1.4146186381325405 49 757 45 632
13624 0.40427648298324798 0.68893315599223204 2.4641555596419646 100 79 94 0.83059553817513865 53 79 57 82
13992 0.63875617206977586 0.16198403477093826 2.2410384896346764 201 203 202 0.0072503051343095646 43 675 44 651
13625 0.60496677812457433 0.6101836015657538 2.3354976661440152 25 24 20 0.062648629744923162 53 84 57 106
13628 0.65688682341423732 0.54250988479223394 2.2672203226076135 0 0 0 0.84548721837358198 2 186 5 342
13631 0.48331896318227929 0.748119139834029 2.5006834075819531 18 18 16 1.0848389052794776 53 139 57 136
14064 0.33653103816272689 0.63608456761817422 2.2532185188503768 45 40 37 1.3273849774898034 4 327 52 257 3 255
13633 0.57750503169521139 0.14329425484284872 2.4054605275732381 196 194 189 0.14347852243251702 53 175 57 170
13634 0.39091575566945774 0.28045952974748017 2.3123650001060656 69 60 54 1.0646496356002808 53 179 56 101 57 172
13635 0.70944686784524602 0.39057352590831468 2.4359781877269233 53 49 46 0.7761479135947047 53 299 57 178
14068 0.44923884853011042 0.88305571641620495 2.1745988464926529 23 13 10 1.7456099919337085 3 2291 52 307 51 219 4 1377
13637 0.57224478062611328 1.2799336312954586 1.9890725538392606 212 161 142 0.0060742770578490991 53 227 57 220
13640 0.47318512182873057 0.51706157256732832 2.4011479080511275 45 41 42 0.97741642782334859 2 202 53 245 57 255
14072 1.8691888732947723 1.80697868650934 2.5224993213746001 71 68 63 0.6744390215522148 3 3748 52 317 51 388 50 326 48 171
13641 0.71677137461518126 0.44552300131744732 2.4855524987872037 130 118 118 0.062940306397765669 53 294 57 267
14076 1.2181013656735922 1.0869227908864416 7.6064104728904667 128 128 122 0.58565148979716908 5 348 52 416 51 456 50 158
13645 0.66421446654133298 0.44449928910222564 2.4891802498015863 28 26 24 0.48649553430866399 53 292 57 348
13646 0.66356108407713954 0.511288658823433 2.4773082247172269 107 103 100 1.2156538024967591 53 285 56 433 57 354
14539 0.75265616367654464 0.012897683881704432 2.3102016004083499 0 0 0 0.55279923546306331 45 24 49 21
13656 0.51686495117974562 0.14791866297438883 2.4064852299866262 57 7 24 0.099922066879920085 53 307 57 442
14376 0.40346087940957287 1.6596495793022927 2.1843931233783773 50 46 57 0.52719400803603378 50 700 48 769 46 665
13659 0.44763414177387356 0.31447536019895678 2.3675994346633802 65 55 53 1.0106201114389142 53 371 56 333 57 456
13968 -0.71258682263918227 1.7255305863002128 1.7032352747082042 123 94 33 0.044524299240530453 43 1215 44 371
13665 0.39922401751257613 0.2711328209638193 2.3284395974048619 83 76 70 0.86889275879869754 53 647 56 376 57 550
14493 -2.1491796563686663 1.6567818291744321 5.1286819621273754 102 68 31 0.32043501957885578 49 189 45 195
13666 0.51208552767588644 0.25224797565393847 2.3795013475858875 47 42 38 0.50585496808942321 2 359 53 600 56 211 57 554
13976 -1.3319892413688745 1.8401362343045675 3.0170737662350864 59 47 31 0.70989482171298945 59 1392 44 550
13673 0.49185584972098312 -0.068847669824049967 2.197511473424715 10 9 5 2.6407977017195341 53 318 57 571
13980 1.533504358725678 -0.48293081594041026 3.7669321987363897 91 72 39 1.7740158552720837 28 1487 44 584
13677 0.52104770482044471 0.75729913658514292 2.5108860066050123 26 22 21 2.0381472859617054 53 638 57 622
13678 0.33781174488639443 0.67991845848101118 2.3481584692896402 67 59 57 0.84015577535931163 53 764 57 651
13679 0.45008348503646844 -0.024887472958694094 2.3245237345682481 142 120 119 0.29831499935031713 2 427 57 666
14048 1.2828757056044817 3.213607702888813 7.4991564733325813 25 29 30 1.3113393706535654 5 1362 52 85
13681 0.66604427378591025 0.35607760823547863 2.5112593571136004 172 167 164 0.30453126651685214 53 679 57 733
13682 0.67418933695486061 0.39266582725800198 2.4432158938244477 43 46 46 0.021405334230358737 53 590 57 739
13684 0.70973829985475501 0.41510688677953822 2.4925424082510403 166 137 141 0.34578187901306157 53 694 57 746
13686 0.62803809571291724 0.4056181244419742 2.4887883912428008 5 5 5 0.44976951752595623 53 645 57 750
13687 0.54885258238480594 0.4142868319595826 2.5101048101389201 16 16 14 0.7334668056376894 53 578 57 754
13688 0.46107970576926327 0.42818698621955348 2.3655972256270021 78 63 61 0.24719912516171197 53 707 57 756
13689 0.69242160629372318 0.47825907481743835 2.4975323602356854 93 83 81 0.28926237347544637 53 572 57 763
13692 0.55190758338533208 0.58384534125795684 2.4248034609704185 131 133 131 0.72459518782082588 2 298 57 789
14060 1.9416785788623996 1.815017110371177 2.5991268587766192 138 103 61 0.45061047913989666 3 3743 52 233 51 214 50 152 48 127
13693 0.6675970370896338 0.62822725718590833 2.3933249784915325 86 72 69 0.065863908693959416 53 555 57 791
13695 0.65322362205138285 0.64328414642822007 2.4629134914745876 26 12 6 0.56376934307311533 56 796 57 799
13696 0.22605184004500178 0.6120361724390786 2.4289854940528111 68 60 57 1.6291933464235784 53 492 57 811
13700 0.44141110635748415 0.72592814733953326 2.5656121414625415 82 84 83 0.95513600556313327 53 779 57 828
13702 0.26022431541405017 0.76258246347325176 2.3581014375853639 9 8 6 2.2953229762434342 53 789 57 839
13705 5.8922224507519703 -0.63616794064526005 -0.80814967985676667 72 73 68 0.55570531192728823 18 1211 57 908
13708 0.69704735071557566 -0.070145476240792981 2.387349943321373 13 3 0 0.75420460106362386 57 947 53 2310
13709 0.53532700924907839 0.12977421488853982 2.3464158577168255 199 219 207 0.14899717806462676 53 1528 57 952
13711 0.55640144567520511 0.075223834831376429 2.3799312553128149 91 48 38 0.69685376269819566 53 1202 57 982
13712 0.46624632482846312 0.3524274738523035 2.4972720266241062 69 70 72 0.10556530225287633 53 1304 57 1046
13713 0.4736416243810731 0.37260039377199966 2.4859252843511723 70 72 71 0.005585825245974208 53 1721 57 1053
13925 0.40420428202952224 0.48939709587310393 2.2306824647065548 162 165 163 1.3828010836106934 11 189 61 341 59 239 8 291 36 262 60 273 25 312 42 211 58 245 41 175 9 230 35 196 39 342 3 252 4 352
13716 0.53834231181203196 0.43790896501763454 2.5011391299546109 54 54 54 0.37546591658752859 53 2135 57 1071
13718 0.63757983321324718 0.49025654376233352 2.5422552900219282 27 26 22 0.82254293843317416 53 1354 57 1085
13929 5.9283799976693441 1.4934792408174882 6.9760732062828268 143 144 142 1.9791646584307871 36 382 60 381 25 507 47 458 42 297 40 1187 22 452 39 671 21 167 55 180 54 165 41 433 40 157 37 200 39 131
13720 0.61746843176089816 0.5023464603791381 2.4745900620559356 106 103 98 0.54431148014760011 16 1106 57 1090
13722 0.38078820542847303 0.46957997957464898 2.3607280653442113 139 139 132 1.7191621673784041 2 1077 53 1349 57 1095
13723 0.61741923551699074 0.51647492185198518 2.4821048446548488 24 20 17 0.9813272906946735 2 1200 57 1103
13933 0.59944157234149253 0.092854781747791146 2.2341742199541552 218 198 183 1.869970539366826 36 2228 58 283 42 488 41 365 23 181 35 189 55 177 40 446 39 370 38 530
13724 0.64233615747790551 0.62846748625835402 2.3544043026613926 117 114 109 0.36670289978494974 53 1896 57 1117
13725 0.41046546518694782 0.57073935161866973 2.3332393422505335 62 55 52 1.4660304158370709 53 1894 57 1119
13726 0.50377412727037862 0.64059720258513198 2.4675581313461947 20 13 5 0.98086396777320672 53 1417 56 552 57 1149
13728 0.42120296622104553 0.70674239930807015 2.384470325047864 14 17 16 1.3645407197032484 2 1487 57 1162
14036 -0.65135793067034919 1.7337032432942265 1.8158464311781715 71 60 48 1.4576835716680803 9 1657 28 1634 44 767 9 1658 11 1465 14 1154 61 1647 34 960 24 758 31 1889 36 1611
13733 0.50697219318804754 0.76730432155528649 2.5478373503572631 81 78 71 1.3669611104597261 53 978 57 1192
13734 0.46224797798624762 0.84256712698358949 2.3504075248718119 27 24 19 1.9939537617082697 2 1047 57 1206
13881 0.80508047430319141 0.44981461904562864 2.1784376800085345 0 0 0 2.3215803585157535 5 807 14 774
13736 0.46942713154748933 0.80169446784832499 2.5453670429468169 114 114 112 1.6101617287830254 2 1029 53 1008 57 1215
13740 0.73815646391267953 0.50660061698109071 2.465361596693354 35 36 38 0.23753327265069196 53 1330 57 1355
14386 0.70736272145338353 1.4729249383236038 2.2008268098878276 26 13 12 1.3258673223032229 50 294 51 1069 48 1030 51 468
14044 1.9514782254094478 0.69887986609524899 7.9234865778134553 118 119 113 0.86162116716762649 3 56 5 16 52 32
13741 0.52514871671703722 0.47152818553637238 2.4988917295152167 117 110 96 0.17224041959606134 53 1350 57 1391
13744 0.50451494010981945 0.53776527887842707 2.3349912102111254 191 183 181 0.48584937815127571 53 1849 57 1428
13833 0.59937764316739828 0.87462545368599698 2.5114787975083948 40 28 47 1.8449324905434832 53 508 57 577
13752 0.55702392598970374 1.6641383485284358 1.9532534104038908 206 182 164 1.354754252784212 53 1090 57 1560
13837 0.61933542230848304 1.3122416070845822 1.9996179358593815 174 112 97 0.54134962966651057 53 837 57 874
13759 0.65878466824162774 -0.13066820919871486 2.3897054143899799 11 10 8 2.838207652586537 16 758 57 1694
13770 0.57282612454294024 0.076468377778592514 2.3721254659252091 100 49 42 0.5535051416935467 53 1505 57 1757
14424 0.75802436553905139 1.4185517681640472 2.1829780476485414 0 0 0 1.0581081431592798 5 2091 61 1988 3 2414
13771 0.56684884011717152 0.07658725249165417 2.3734981585991348 192 145 138 0.67570986566322111 53 1201 57 1760
13772 0.50668888744025697 0.079103211116054103 2.2390503468804388 147 123 118 1.3506955035333861 2 1350 57 1764
14418 0.49018954149669508 1.2712309839823368 2.2735460635552944 0 0 0 1.7084567898245731 5 1045 61 1197 11 1743 9 1509 34 1984
13778 0.38395481917513341 0.22876365592182782 2.2392045811653265 32 34 33 0.66572577359490792 53 1239 57 1854
13779 0.42413927491773323 0.2451083386320409 2.2421443017305216 11 11 11 1.2488919554100852 56 1210 57 1858
13989 -1.8671455365761773 1.9206337824501787 3.773898457209703 51 40 31 1.4608843320409002 9 1077 44 612
